 4.932379     4.377015     9.266958 
13.517106     9.951931    15.968607 
14.733954    13.701793     7.569230 
 6.531898     2.585508    12.697781 
 0.122880    12.233458     6.671506 
 7.410746     5.796519    10.131154 
 5.455251     4.396571     2.433732 
 7.332934     9.104727     4.076756 
10.168196    13.039224     4.087144 
 3.299286    10.156828     9.777319 
10.642476     4.124416     2.189432 
13.112344     1.525490    12.147004 
13.998906     8.607540     3.213639 
 9.999323    13.743324     8.205423 
 2.035269    12.167620     5.323184 
 4.043642     1.702066     3.474673 
 2.538801     0.071504    12.699477 
11.689164     9.534499    11.793759 
 1.033515     0.021273     2.106962 
14.632203     2.462225     0.373062 
 8.864488    14.823824    12.549969 
 0.506078    12.615801    14.734695 
 5.176422    11.943964     8.075848 
 9.358460    12.658397    11.293444 
 5.908117     8.569993    15.943427 
 4.001138     1.686155    13.313126 
 3.151923     8.587668     3.675691 
 8.983284     2.904224    13.623425 
 7.859103     5.802300     6.268752 
 6.679920    15.206840    10.794471 
 3.916042    11.930775     4.684547 
14.721884     5.840148     8.829030 
 0.596709     4.201809     4.945904 
 0.822166     7.442024     7.857482 
15.328361     8.997010     0.974962 
 9.033719     3.233658     0.688082 
 2.614764    13.008220    10.368491 
11.062461     8.568764     1.885364 
13.908286    12.213690     1.526707 
 4.004918     6.178960    10.855421 
13.550011     3.952206     9.537387 
13.299829     7.609332    10.336740 
 4.140078     7.037554     6.796012 
 6.711013     0.264851    13.527985 
15.498209    10.917771    11.257813 
 6.457818     4.283798     8.013239 
 1.844095     0.409660     4.319026 
12.004600     1.963819    15.037625 
12.847940    15.986726    13.916114 
15.163594    15.239910     3.404999 
15.629717     4.689004     7.339891 
14.214572    11.995601     4.794754 
 8.541166     9.006239     0.011276 
 4.706060    11.965152     0.012808 
 6.127034    10.808919     5.731618 
 2.864406    13.615091    14.526733 
 3.830358     2.762838    10.361026 
12.957166    12.202000    11.110987 
13.421030    11.335120     7.006279 
 1.002241     9.553804     8.853427 
11.827252     7.461012     3.543251 
 2.607404     1.419314     6.320074 
 1.983746    15.929014    15.564480 
 9.513760     5.483793     0.206791 
 0.576879    15.036782    10.138656 
 5.540369     0.936854    15.628280 
 9.409188     1.149900     9.541256 
 1.301864     8.040484     3.836581 
 8.202328     7.096003    12.014467 
 0.438367     2.451245    13.538687 
11.457594     0.969059     8.836700 
 2.648508     8.396538    12.833338 
 1.285517     6.966126     1.310972 
 6.139910    14.951872     1.606722 
 6.351730     6.283776    15.133242 
 4.451554     8.848246     5.580913 
 2.569793    15.857031     7.558927 
 6.962935    12.355457     8.374396 
 1.739398    10.967376     0.444629 
13.094360     9.979313     5.547319 
14.708746     1.561762     9.142581 
 4.186614    14.992507     5.292485 
 9.243895    15.345148    15.093538 
 7.053423    14.783674     6.770957 
 0.092591     9.771572     2.931231 
 2.720155     1.139835     1.962587 
15.016970     3.124049     3.560008 
 8.878229     4.922849     9.009678 
15.558418     0.524522    14.670884 
10.957329    12.087169     0.964656 
 6.771857     4.640057     4.295347 
13.423903    13.726360    14.528709 
 0.842137     1.191034    11.803154 
 4.548106     8.590104    11.467435 
 9.948994    10.883107     4.127261 
 8.703617     0.208919     3.633301 
10.031969    12.543677    14.944843 
 8.218505    11.180475     4.939105 
 1.778497     5.205790    15.698434 
 8.174491    13.141384     3.173661 
14.341798    12.552913     9.174244 
 8.488095     5.879561    14.064830 
 5.021343     0.543864     7.540493 
 0.044182    10.704956    14.579674 
 4.349967    14.063066    10.826090 
 5.892562     2.035421     9.202813 
 8.059318     6.495925     2.319708 
14.262594     6.203462     2.543896 
 0.060873     4.723370    11.225911 
 6.519823    12.142263     1.680851 
13.919117    15.358117     1.840534 
 0.783879     2.311439     2.173551 
 1.062272     1.081196     8.548448 
 8.920362     2.226342     5.896499 
10.713458     5.621552    12.174866 
11.973158     8.269832     7.492276 
13.239698     3.833821     0.855480 
11.618580     7.597073    15.112497 
 4.485998    12.116474    13.095004 
 9.994712    11.181306     7.086121 
 0.306566     6.905744    14.810765 
 6.700255    14.764193     8.795336 
 6.751114    11.893302    10.796252 
10.908094    15.859491    11.593903 
11.968331    14.749312     8.162063 
 6.280737    15.690893     4.009072 
14.851737    15.973204     7.012687 
 3.225015    11.076551     7.690156 
 3.900791    15.963944     9.608139 
12.897813    13.834977     3.244293 
 0.916276    14.356898    12.833063 
 4.346683     0.833521    11.444069 
10.117644     1.124450    15.536730 
11.897702    10.660298     2.836499 
 8.844525     0.241258     7.499059 
14.045015     4.988006    15.246265 
 4.462829    10.088196     1.186079 
 9.590263     3.562225    10.920636 
11.602349     7.345988    13.187753 
 8.288210     9.511915     7.796640 
 8.759183    10.410725    11.479456 
 6.317407     9.853136     8.013758 
 3.129617     3.497943     0.288375 
10.949734     6.274350     9.179992 
 0.522065    10.126541     6.542676 
 1.694643     4.356805     9.571088 
 3.350092     3.571416     3.848504 
13.564330     9.439560    11.926904 
11.827494     2.948900    10.849439 
 7.479533     2.574863     2.205674 
 5.057415     9.581555     3.076678 
 2.807652     4.308920     5.703332 
 1.730201     6.656154    10.063534 
 1.573825     7.250050     5.765139 
14.158701     1.474433     5.564914 
10.775729     8.839866     5.545413 
 0.527846    14.288208     1.418101 
 4.656272     7.476125    14.011902 
 2.834420    10.502733     5.814182 
10.945057     4.365110     4.545993 
 4.136761     3.915656    13.754440 
 5.500176     3.507987     0.104472 
 2.492486    11.230366    11.888402 
15.514525     7.609199    10.448374 
14.907026    13.103514    12.543714 
11.084058    14.622146     3.100978 
 3.080328     9.675607    14.565411 
 8.796589     9.217029    13.519770 
13.027503     1.172865     1.472945 
 9.319587    14.553289    10.388230 
12.883203     5.155046    10.865369 
11.086148    10.736017    14.883079 
 5.482778     9.426445    13.348983 
13.525345    10.129883     9.597089 
 6.258474     7.166444     7.739609 
 9.473077     8.767562    11.152329 
 3.393366     7.779828    15.698508 
 3.280542    13.246730     7.888647 
14.198972     3.397712    13.310822 
 8.538211     4.606738     3.192023 
 7.385330    13.033001    15.842159 
10.955613    14.658953     0.807779 
11.280989     3.697370     7.843011 
13.185893     4.434571     6.319016 
15.512215    14.373664    15.391692 
14.245045    14.569946     5.580511 
 6.980030    13.940275    13.935797 
 0.499324    12.947286     9.284788 
11.832461    15.831637     6.027901 
 9.017527     4.267987     5.405434 
13.281845     5.566498    13.701386 
11.059750    11.637799    10.197107 
 8.103938    11.441780    14.295598 
 2.985637     7.981631     8.837432 
 0.401749     5.915876     3.466152 
 0.435175    14.709000     5.094033 
 9.619448    10.717995     1.859710 
11.415912     4.140563    14.977372 
 2.457941     3.557314    11.568981 
12.698223     3.033874     4.555827 
 6.019685    10.922892    14.958251 
 8.763358    13.726047     6.175705 
12.822327     6.403298     5.628822 
 6.012705    12.161480     3.899671 
 9.141546     7.477155     6.997705 
 2.999620     4.891980     7.808649 
15.687271     9.047876    12.862154 
 7.084408     2.624834    15.127242 
12.388480    11.985678     4.528346 
 8.765002    14.597485     1.678737 
10.790867     1.488163     4.970471 
13.361072     7.344813     0.060436 
 1.469798    11.896357     3.230311 
14.867469     7.275671     4.713276 
 6.547060     8.806878     2.097995 
13.187206    15.221121     0.098134 
