607

   2.6209829035080623        4.3880193432143795        6.9165694192082707     
   2.0798285626361341       0.19853111567382506        7.9094019757288283     
   9.7545303456153434        1.5336053533383480        3.1899866317851298     
   5.4168409911008517        6.3726167962490274        6.2059287640662015     
   9.9647236708050304        8.7190406248750101        4.7296231875056316     
   3.0695997509310118        3.7622274883554292        7.4113862056494062     
   4.9231138207179166        5.6330298109918830        5.0658801113463925     
   5.0557401762642149       0.54282985917607052        5.7736686096831455     
   8.3864303175805812        2.1365353541448009        7.5692751614623193     
   3.9233026915520330        7.0732825705542828        5.3049672958796537     
   8.5528119389182322        6.9063166712050075       0.85764977151008259     
   2.9723153801740057        3.6137862627663808        3.5637107893126334     
   4.6361728178655355        3.9037270533320245        5.5227519789006285     
   7.6774943681568493        8.9119690694603424        7.6774799818995980     
   8.9167891318665564        2.0171638966994889        6.5421936321915455     
   2.8731208274328073        9.6532220289957387        3.6920130732661423     
   5.2878475692035520        4.1136068633748009        3.1598947225235547     
   1.5597128647350564        4.2336323305126982        8.9322031985407850     
   5.3661511587654287        8.7756651718943512        6.8371727333440955     
   8.5531004031412543        5.9240043304380672        3.8673837864824563     
   9.7341625360700590        8.2085175848262093        1.4391803630478612     
   3.1089507136869465        7.2165198704700657        3.2761205311308448     
   7.4606158761572354        3.3045722519799301        6.2057306316357526     
   7.3265565437154079        6.4826718716875984        8.5982983988363095     
   2.7827954151703596        6.9781035535881610        1.6701402914279619     
   9.0070201032789665        1.2521517058069558        7.2079868850320938     
   6.4978000402694516       0.42709433321929668        7.9031167634391997     
   8.0601016275669330        6.6573322943540640       0.39760956531267244     
  0.14814697761434217        4.2170441881974492       0.39876317181508020     
   5.1623457190433557       0.75560017414383485        3.4218779919515345     
   1.1407387226323651        6.0184361253682992        2.2472417840763335     
   6.3614090839742516        1.2314366142716822        3.6271247277981984     
   9.9696695656107845        2.3767732265148935       0.69749152991789709     
   7.7194658193797832       0.46433260442457286        7.6580433582175322     
   7.9499902395884661        4.6203446172976630        2.2938585295017444     
   1.5588099680183064E-002   3.0454355842008289        7.1113510008578533     
   5.3851877828930759        3.8786330521962182        3.1885657818837685     
   3.9078619503400214        8.0737328229933123        6.3176312459652788     
   6.2777821669886578        7.4358391404001845        3.1454302662788119E-002
  0.52751239830723551        1.5326549701788235        9.1218020599878233     
   5.5918253900178021       0.22303400488852257        6.7715133979573903     
   3.4222535911615122        2.6883021604606050        1.0093630816998225     
   6.2129508583222757        9.0481135622850797        5.9062274195871023     
   6.1454037121323646        8.5205262288771220        6.9540966526837673     
   4.8940560461835911        6.3920212013137805        9.3297035385999756     
   3.6482837393898353        8.0351400800448758        8.5035578807578442     
   3.0501792947847557        5.9424192200060419        9.2730590307972438     
   5.1003338491166561        7.5632193321374057        10.105755736685815     
   6.1788540813162278       0.70741763423653126       0.40934236526536893     
   8.6398057572757576        8.1922714975567672        2.1259993217400335     
   3.0307513559505885        2.0246585790884009        1.1181917737590723     
   8.6126289844084578        5.8293609150995884        10.020167594343492     
   1.5189443763911639        4.7661934094087357        9.7019582557871580     
   7.3915345869112548        7.3337110673251091        9.5815058273629745     
   2.6358546404431662        7.2957143252264682        7.2818252336973748     
   6.6470173165980402        7.9360061135047424        1.7185050090018263     
   2.9057873612596601        4.1757481333938173        9.2958294246206847     
   7.3452246051319907        6.5113122542385158        5.3807522087362250     
   10.080784920825225        4.7108668294853437        8.6108397215363617     
   8.3550023976456274        1.6050317671289938        7.0751050918516087     
   4.6877970254804824        3.9952541136160620        5.3999582565465118     
   8.3765888784263556        8.3624603414592400        4.5761645601457870     
   9.4587773923660396        9.0330781586629438        3.4603880808046643     
   6.5029328959396351E-002   9.9334891337999114        8.8377437420191551     
   5.1017008178440149        4.3086089954932634        9.1611379873966285     
   5.6443096009262623        3.2110815319241208        4.0489525350426270     
   5.2825849503583155        4.8292984692537653       0.33090509026436915     
   6.8781070898913264        4.4908680471479516E-003   2.5853437096829777     
   2.8273439228075854        4.0706537846782807        3.0227420983083433     
   7.6793547867964129        3.8127530015181281        1.7363935894349007     
   4.4232873836188782        9.4584937891043896        4.7071135852543646     
   3.9685797383508628        8.8149591427322296        1.0195423912899391     
   9.5438631071814406       0.12910426868719693        3.4948488915712415     
   4.7945399151242416        8.5780011415361272        9.1629168934914311     
  0.27655754494887813        4.6399664125700557       0.82915040532659268     
   4.3073352650593106        6.0990453851372495        8.8920322815062622     
   6.8265886902053206        6.2029279435713436        3.6560985295323176     
  0.67744324824707114        5.5783768653952475        4.5679074618200959     
   9.8893863375288227        3.2118866757759825        1.5098384501647886     
   5.7722727906229574        6.2064562351008492        1.5992128557799665     
   3.4588454744932315        1.8776449441635925        2.8486415468977730     
   6.1294396212117537        4.5555922625365257       0.28286548627962738     
   8.8122765500714557       0.61673865587729748        9.5211143705804044     
   9.7781952306036715        3.2853939076519539E-002   7.2438702247160363     
   5.4930889886218353        7.5500086968900293        3.0280324155600051     
   5.9683108158087457        8.1301350265507857        2.3977725132657279     
  0.58119322384215344        2.0658172461381845        7.0674946012040092     
   4.9630646603904713        1.5393240781797461        10.060145143414204     
   4.9963098766733287        5.9499969590170538        3.7107847328713688     
   7.0168404610195658        5.5966493294245403        8.9613444417817512     
   8.8676785516190684       0.41825367667675695        3.0891290451121600     
   7.1166257779256208        6.5884538726330346        9.7795288295678571     
   2.6902806724006512        2.3225302956309437        4.9475791652162595     
  0.25918267066120709        4.9993260174539742        1.9155001609836670     
   9.6861932365618149        5.4884045287421186        8.5382468152961088     
   2.2092772870405830        4.1732339017321189        3.1846353851766334     
   4.1458432822641829        6.8198664061491128       0.72444925350774048     
   6.5658263560331784       0.29262351079135995        5.2016574986111053     
  0.86064145590317909       0.11310234007280133        7.3374110949499487     
   3.9349194878914195        7.5250540515636635        3.8742170850795303     
   2.8073179693586225        8.9469256614213624        5.2146194762082594     
   1.1894870699687436        6.4239516058117809        7.7011262269533578     
   7.8260072848560736        9.4219148671224371        2.1202148902588136     
   2.2314761547399748        3.5697318078324942        4.2499838865737960     
   7.0042412192619414       0.37314073226083361        8.4858366547381721     
   9.4703558379607653        9.7057624564482836        1.6857699116905933     
   6.5546717529005445        8.5720790081508174       0.14586490432530477     
   7.7862880348803376        4.0177933798547105        7.8725060152213739     
   4.2173626264337019        3.0698641893581282        4.6853999099227792     
   3.2610090288006135        8.7692458362546564        2.1395673322358899     
   3.3913428096409741        5.8235772794424125        1.8418436360398798     
  0.49169004852039527        9.5069286960691120        2.5511736082827770     
   7.4114184861489214        8.8235921296529671        8.7615561698700617     
   2.9724439310670081        2.9349013038985432        9.3936083171396980     
   7.1657504794266380        3.6362184968738882        9.5656238400701898     
   8.8262200240701283        6.9935010445993511        7.2758845520913358     
   8.2071976600685961        2.4640130207600226        8.6576613373205422     
   7.7619822524067814        7.5686218556334062E-002   7.4213053435757299     
   6.2947335334867320       0.24335754316263139        6.4656467422239503     
   7.9963161785723971        3.5624132130991781        2.7420863848524615     
   4.7173091795235935        1.8837869537401568        1.4783450935222944     
  0.60409211373462135        4.6232949654653250        9.9590165095988663     
   1.7689348981153963        2.8596580210283782        4.7025275856835869     
   6.7532914399398214        5.8631057732727161        2.8497853270754763     
   4.6266324595257853       0.22359655296811892        2.7034422741429331     
   10.066581676395305        3.4064617183114736        9.6215248747750408     
   7.7290345997939465        2.4810797989791236        8.4560208139472675     
   3.5877194583494076       0.71752756723241029        2.9699572828768540E-002
   1.2101781543951446        7.6285083094842676        9.9117241583939819     
  0.84053453989760174        4.3698687913429106        5.7251072768610634     
   4.3027228422691053        9.8559910214498139        8.0597190303516513     
   1.8317094455448546        8.8670682610750795        6.9289731867757967     
   8.3425263774064842        2.9568206210307411        8.8476022851644593     
   7.1541776639215096        7.6580991953656268       0.38139003158449059     
   4.7739695779444062        4.2240527679050279        3.3016470043387773     
   2.8446965892934011        6.4589176803131707        6.9482894670069149     
   5.4821132771818348        6.6304522579210641        9.7075693670084569     
  0.80101289590930991       0.57836562484154042       0.31583994347472100     
   2.4412409119323883        1.5280068290184485        9.7244740473751712     
  0.97162866943538639        5.7340677359593748       0.19760081584344064     
   8.3086586648272949        5.2783057453409370        9.9564729432942354     
   8.2260062498414417        5.2986404435730945        5.0379300897657124     
   6.0855418372321166       0.93428095849088777       0.79388487611107383     
   5.7852520412046982        7.9101720573850063        9.1034279451302957     
   3.3867050668655461        8.6869678191554893        3.7982115327625756     
   7.6207657433378362        7.7359668301605771       0.32647066947600889     
   1.6324425971712184        4.5764062947180451        3.3311124070877356     
   7.7718756644338907        8.0479532985976014        1.0813817499274021     
   9.3274834959884991        2.8532076600980800       0.76786180995458841     
   1.4346758861532720        2.5050738911389359        6.4399906541905345     
  0.36239723694816134        5.0778306958854023        1.7396233447116169     
   1.8225025319747270        9.1283819493475811        7.0752459125518481     
   1.8954502715801240        9.5196560916369108        9.2246987243026375     
   3.4059677789167173        2.3234662471051721        2.5603727431999905     
   4.0682697635238778        9.4062967671242177        6.8429598108108554     
   10.003917071704427        8.1795949653102706        8.9485854966936387     
   4.9608496852673127        2.7035176561755394        2.2112963718291256     
   7.4806071962863268        7.8181025810043643        7.8403906317597194     
  0.67626476031967286        5.0994059551835562        1.3260166745005426     
   2.3157613780130211        1.2132635325694647        5.4380962547770890     
   2.2285287618134837        7.7104933027716598        9.1392880504843816     
   6.8257549682370184        8.0781321870740470        9.4304256275469811     
   5.1549631359161454        8.0337485462418101        5.6003996709936787     
   10.024424998991144        2.0291607946582988        8.8862473140893279     
   1.8376262643677677        6.6959391664876140        1.0790792686624835     
   1.0015656187312878        8.6342982552880176        7.9256235647625735     
   9.6858139925217710        9.9117477688353191        8.0997839886264078     
   1.0555645014196997        4.4636768708852648        1.0923806607299766     
   8.8422790464839274       0.61080546010295789        5.8318271629491969     
   9.5583820883835582        2.4398915135064172        7.7584116211343686     
   9.8187376998053431       0.75646809496685974        5.9669822440495732     
   7.8561789465460956        3.8244711217138594        9.6230812201838578     
   2.6749588736716414        8.9309008945176593        7.2979843523635095     
  0.72749337246770629        7.8517353525106639        7.7430155916934034     
   3.2443941615987120        3.6024139289336339        2.0293126499442620     
   8.5170344071794339        2.4359425344397030        2.9556499268930816     
   9.2077450665960807        3.0856335554733825        1.1923732727080862     
   7.8826558652648080        2.8116674665656478        5.3167419670477534     
   1.6845419623155888        4.7807798057846691        2.1000435801315978     
   9.9379246233795264        7.8451217087779597        1.6388783418149930     
   1.4078762465285857        4.0575444091565869        6.0002533020988187     
   8.8324815712285378        8.6502721667372153        5.7324678902041466     
   7.0569158303458792        4.1364419319952956        5.8996725836779795     
   3.7699347182636469        2.6692662011481079        8.6474074588996004     
   2.3299987940566638        4.5302585058017462        6.1803520258959530     
   7.1703614026439544        8.7815216957688182        3.7668567984591319     
   7.1791449933698059        2.0656001586775878       0.87371602310226870     
   6.3241335811839194        1.7215744620895153       0.37053723987783999     
   6.0399664760670033        1.5005683948372097        5.2137496705911071     
   2.1539625230048571        6.4514509429526035        4.0055555359954669     
   7.3488247414544183        6.3431289673539499       0.19168361680092083     
   5.5712852727101216        2.2907140610040138        6.1992486624651928     
   1.8490196885642070        6.7807916318779853        2.3278520484877721     
   6.7016745996059193        8.3067928378455775        2.0409185749945991     
   2.9104780431236743        6.2346292526578484        9.1874104713301588     
   3.3467406085173641        4.7294927350235785        3.3055658283575795     
   8.3254204340497537        2.4140245348130049        4.7950727392572690     
   7.6476035786949339        9.6522130833876574        10.033619353423802     
   9.0873021659942470        3.1313028505179528        9.7117967405117689     
   6.6791563114239638        9.3763796809014472        8.9858258926624774     
   9.3926517323954695       0.41350991439334756        5.1743750660035541     
   6.2462126482789788        7.9141225265382795       0.42360458601556716     
   2.0564336751057444        6.7316516492378469        2.6038501588157614     
   4.5839053646294472        4.1357724802601910        7.9911843801275024     
   8.9185961267836316        5.1460904605438058        9.5133890434294432     
   3.5104181380323696        9.3385742507004803        8.8068103892707921     
   6.4170493893714946        3.9146896826491941        4.9596758333650302     
   8.1127045678151024        5.5895738759992666        5.2775654371992085     
   7.0367328804372846        3.3284240208583307        2.9158861456681029     
   6.6759021730338910        5.5516876582261769        5.3458689971344411     
  0.47719071578731342        8.2602481735659818        1.5556709249527607     
   7.5788520392460628       0.28237218776194078        6.4256520731609390     
   10.077076248993501        8.4058695398348497        3.9737152547106791     
   7.3760741250534645        8.8616895032422818        4.0446454678173183     
   1.5502321832202233        9.3694179716419050        4.6179545814310901     
   8.3607047691572429        4.7039708304415981        6.2072481822773993     
   3.9329213065377209        8.7692496529109665        1.5662051712918670     
   4.9478852207874846        6.9916636246338362        9.0351578270455981     
   7.3948831239890831        1.2751319029974562        1.9776114942221397     
   6.9383441698228019        7.0343226474247107        6.9852005426223718     
   9.3243237591014108        4.2545891231570296        8.1640120518086778     
   7.5219271838816066        1.2114107232508222        1.0266702414281137     
   7.0268016732487961        7.6583875422116696        5.7958278904065814     
   3.9794477487526096        5.3730714848629049        7.8518070745918580     
   1.8608547494074408        7.9970101391870738        3.3622947628228212     
   2.2795296743753402        1.5786134650766328       0.40065117853519921     
   9.5269689559034774        1.0409949583128839        7.3170781359824311     
   2.8232557219151007        8.3708616991791196       0.67734991250462329     
   2.8749995658355880        5.2713806804410392        1.2488170974134676     
   2.0069418670692079        4.3343883499248301        6.3606749125611355     
   4.9123138373747075        2.1855977425864141        1.2360382614219716     
   2.7182548857832924        7.1525893357675860        7.3705010526601793     
   6.1216915724972605        1.9064311370578051        6.8444737345869617     
   5.0106244310583152        8.6175119304963239       0.28277374585730031     
   8.9721033548546707        6.1535024304988646        4.0089870221815938     
   8.2449881037382191        3.0693816188132677       0.62853930481061104     
   1.7711403208782097        4.9672360504628807        5.8554998779306686     
   3.3802462866941991        4.6919638383325726        4.0638824835714669     
   1.6902777528344723        5.2637113930074655       0.55276050665259258     
   6.5826101904223213        8.3319068042249729        9.6146707881607654     
   3.8315432579197330        7.2136042962573974       0.95139426874974631     
  0.85866285802543785        6.8291740937294776        4.1828665518286217     
   6.3774577378149804        6.9860755346669050        6.2226731130709059     
   1.0260413940139912        2.3837649303761212        6.0523985941587624     
   8.3175593417592300        10.047188561668356        3.1071189722734736     
   1.9659371475641876        8.9493511166768940        7.5095747218119389     
   9.9137786144193250        8.7285288248233552        3.6583057094431322     
   7.9416648406757409        6.7973808885350122        2.6170525510254832     
   6.3703613482432173        9.3945489075769224        9.8591162258542990     
   5.0010451281273260        3.6572357990179492        7.1675147203454701     
   3.1903407525641976        8.6369875092796384        6.5647262865509761     
   3.6465036558564989        6.9177834554141304        1.0481564576463369     
   9.1417865660912927        3.0158170857168844        6.7425220051342265     
   9.1947897679735533        3.2555184006211237        2.4816254224280625     
   3.7771067435609269        2.9433485770881123        7.4762442720179045     
   7.3474157239044660        5.2447381660480872        1.3195120835600953     
   3.9588931575783191        8.4191029667314972        5.8009142451163322     
   7.2874065672769577        9.2280401914915533        4.5516162147470762     
   7.8946376432693466        8.0050120925907873        2.4464374978700425     
   9.3690678872207496        3.3725799260735947        6.0307124165244463     
   1.0111316829606316        6.2374499396517002        3.8709025186240225     
  0.64104488362011169        4.9515784901331870E-002   3.3955387693161563     
   1.2107155519724224        9.9354918454096843        1.1626269282251984     
   7.0276642283469215        8.0553752944432482        6.2386144504766463     
   4.8925919372343403       0.62106193019766598        7.0901560673672401     
   6.9518027422830597        2.6988504926839147        1.9992959323081809     
   9.2542993566702432        3.8069915858043326        5.5084314984967646     
   8.6274154874711009        2.9797536569459067        4.4678506056222842     
   6.4001717236954283        5.3093113711677384        3.0625207704459707     
   1.6640765949489744        4.0669057251676115        3.6549530583362091     
   2.9752657838531165        7.5129350208593726        3.0560633979226441     
   5.3358534599148140        7.5648133313883612        3.7236491617595266     
   10.024083895679569       0.19153737204508822        8.5525928487320950     
   2.9851331309638029E-004   4.4314854243378647        6.8356821465850581     
   9.9780859853722816        6.7549408653159588        5.3992530139288908     
   3.7916931204016668       0.45191145500689861        7.2568611424181304     
   7.0209398207145020       0.27855077831716979        4.4260384163855777     
   8.4442088801904571        9.1158857422833837        3.9930852272629878     
   6.4358073151993711        4.5490797841340838       0.89800193641946668     
   6.6371576162963679        7.3589216051159712        4.7520711371817788     
   3.8645595463818996        2.6726334555234090        1.2132630031130525     
   2.3506567423815197        1.8369898576617285        8.1069411035443864     
   7.3460776573175925        6.8079842051377213        6.7162666381903220     
   4.3501226973086418        1.0147562056732813        2.8177294654542866     
   8.5653151127977996        5.5695857012157113        3.6956450092701689     
   6.5124794487422601        8.9529871000700201        1.2086399822001495     
   2.3697836852612983        4.0873523141021870        3.7385811430475582     
   3.4172507275029456        5.5419538074673573        4.7769985964317643     
   7.4585680733672861        3.8743143282987949        5.2715375783896912     
   9.4459510965959002        4.9141676817660276        1.2091016919339204     
  0.39377668186377257        1.8976657872234552        4.5363907294880743     
  0.20321104975527796        2.6641285661105796        9.8278128751637315     
  0.54857963897123141       0.79316903053259069        2.8203555363284374     
   3.5898011273490340        7.0863538260792485        7.9535088990129852     
   7.9709880821197938        6.3489823885279240        6.4132547856808522     
   1.0154091901471363        5.4508702100761566        6.7053228629081572     
   9.6624425266582445        8.0432159230928999        5.3948200281945295     
   10.133389269582796        3.4791201188831655        2.8181417610637678     
   9.3869449700874732        1.2063609053703863        8.7177418078498867     
   7.3370360088900632        7.6786404088792501        10.129574768552432     
   2.6318578220377891        6.9742801395037626        3.9066377575894600     
  0.18685126910604094        3.9334089681610713        4.0422044241117243     
   5.9549689485831845        9.7853404804506727        4.0574861421581812     
   4.4574882270812477        2.8694284577737217        5.5159680173466183     
   6.4637119897208599        1.4753879489361408        7.6899314563311219     
   2.9379884524877662        5.5490790856746326        6.1278207006433831     
   4.8620661454489902        6.9674828440011884       0.64149035591516501     
   8.9741950303852711        6.9835437079194387        3.4875064054960845     
   6.6994167648313692        4.4863167925477283        3.4125089146041172     
   7.6473052598755489        7.5387753366313746        6.0438980643525309     
   7.1408009631871234        3.5794391457076755        3.2146723293406065     
   4.7483279660362596        1.6651905914154252       0.23531856113668900     
   2.8630237101282394        2.5272224378799288        2.2349148002224482     
   2.9581270696527966        4.1409476903588329        8.1406354042427900     
   7.5825056458682738       0.76577776005011977        8.3718626217722303     
   3.8110986094735160        6.2182915799189589        1.6868619555168221     
   9.7248837075351027        8.8114110992779811       0.65791928707170633     
   2.1997171573709942        7.8983109688012743       0.43685999362365824     
   9.8940662611023313        2.2749184663453206        1.3819249169342736     
   6.6253614640873320        5.2977628727667083        4.8651577956257750     
   8.4532815764203448        5.7834564160686108        7.9181986269313285     
   2.5937920845834519        4.7490300039997777        9.4502589444529566     
   1.1042991222055942       0.36665561664702084        6.1454960417592321     
  0.90841695160543867        3.6440961518046437        2.1380015624459490     
   6.8872097194804853        2.4815693777137233        10.031389223550145     
  0.77203402229897555        6.2099398965793693        4.7446255919919746     
   3.9614263013091300       0.55770470316592957        7.3132903092814834     
   6.5596438555144303        4.9661769625045933        5.3698561029411875     
   8.6030341427189487        8.7057720369481562        9.5340669275618151     
   5.4488465679994906        7.4354284754513884        1.5361711658999797     
   2.1737240399815980       0.28228194525089045        1.6955862768126544     
   8.5875263074035235        7.3824670941526254        4.1051467800998145     
   8.3507722749588869        6.5425622958837817       0.23436726652839510     
   8.2211650612698151        2.2693408998118718        4.1944691165505610     
   7.5027524123891691        1.4039927291836687        8.8130080008404690     
   9.8550779250711251        3.6804275072831394        1.7597714477932160     
   6.1915791432504843        3.2525180719798543        1.2568399620317228     
   5.4527445238528482        5.7061494533394637        10.077584403617868     
  0.95163203313725220        9.0901915907329016        9.9243128796285234     
  0.45647738846824937        5.4383272471645254        8.0121443055445294     
   5.6311194519807053        4.0392722262248277        7.6296994913361296     
   8.3115008831643582        4.6781783866283746        4.4100053623549966     
   6.8532722053856796        6.9813701957467060        9.6592636504756548     
   8.7787088482612781        7.0880638364580539        6.4202557692513418     
   9.0699119913490236        4.3995359031214285        6.5286218951009971     
   3.6739761538884457        5.7090763131431324        9.4481973372750101     
   6.6453872020876883        3.1054540775776580        2.9981238981606486     
   1.3807861119707303        1.3616802284155458        5.3002407192874097     
   2.4756723573096115        3.3070659652037997        4.1292576975213571     
   1.1750985234528859        8.0455270269998671        9.5898272181930295     
   8.4175652964057370        5.3783121982905460        3.5636232881371224     
   2.1869611801764055        5.3880836855668957        2.8253077359831638     
   9.8271297506790418        2.6596131431082344        8.5198991839680751     
   4.9811809114944765        4.6177221079008577        7.0374039369877428     
  0.86906960331662431       0.68650068371398199        6.5505776751285065     
   1.3987797977482697        5.5910635405830007        2.0998951037395712     
   7.3542907990099255        7.9648550115079013        9.3579628681997402     
   5.2029834017037944        5.5625914274774972        8.1426716907017784     
   3.1061616160823342        3.0704147343978891        7.6053955177946237     
   4.7718069126446450        2.0649260025935532        8.7782644660780118     
   5.1233738436100138       0.56904470691576037        8.3720454569079426     
   2.1798512888949673        8.6432545258942575E-002  0.23465801816244788     
   8.7354871561118550        6.5860246806438738        6.8265777109551253     
   4.8005251172088235        4.9400714134346275        9.4691215260002437     
   6.8269189166142992        2.5929583057057277        9.2170686853024361E-002
   10.111235242892121        9.5643219436666911        1.2954349013974928     
   2.7408375905078843        5.4819355068682070        7.9875769678377457     
  0.42014693202510411        5.7745795624108194        5.1939406614758488     
   3.0138409028028552        10.089025705649469        5.8965726397207314     
   3.2720427723722181        3.3516816553099975        8.2108493123956663     
   2.8576439753345113        5.3838291477171838        9.2051879553513043     
   9.6245323351711534        9.0161253710663605        9.4377015667104640     
   2.9803034563965523        2.5773078221623105        8.8432005669777123     
   6.7006630684332285        1.3363239320216949        6.9576503923852506     
   6.5576723910366583        4.4426231881842844        2.3291149736023673     
   5.0969511931765021        7.9303774024197917        2.8804805888015905     
   7.8087537459590965       0.84627124976761792        3.1662552409892646     
  0.71191644684992827        9.5766935202279146        9.7437417403134994     
   9.6129612202168051        9.4408593641966831        6.2193631642423393     
   5.4035195371992497        2.3701502977531570        9.6044029601254746     
   7.7116886890023455        4.1493623599438312        6.4873728764413272     
   1.6981707121873593        9.2695945674865214        9.0526833282462658     
   8.5922806145616040        9.0951776201504249        7.9997732354255255     
   5.3143827548749973        6.8409329010609614        8.2376893333551493     
   3.8936504191267591        8.2666672845313993        3.4674029318634561     
   1.2546600837098438        9.2392936586717589        6.5814791036363172     
   4.8238988400542491        9.6743303867575996        8.3065275388939988     
   1.6891445088870136        7.1496098952358542        5.0156633843013188     
   6.8514973397177448        1.1668727667640726        5.9991101058107574     
   4.7137476092733322E-003   8.5311437274973532       0.22501365917757751     
   9.1368499225210922        1.6089503095521138       0.21962437163991722     
   5.9942176224122647       0.54795543332253882        5.5070715758854512     
   5.3036970765821021        7.6092764765829450        8.8293609918064178     
   6.6079171218058006       0.13808132629052297       0.37186522877241679     
   3.2328013291706479       0.48120338449617545       0.13486990085726730     
   5.5854379280238851        5.3227370275797723        8.5817354659675100     
   2.7821003494421275        6.4059426955195535        4.6022132572560785     
   7.8226080652066772        1.4605765580543946        1.4136362433811662     
  0.75683557581610850        6.2067540835255715        2.0332136668973249     
  0.43369534952495919        7.7260570430905959        8.5841667217454436     
   1.1542502067220493       0.54218784168131162        4.7407309174190493     
   7.6278875540372004        4.8323965036203491        2.4290159165678098     
   4.5476887498535961        7.3075146593266762       0.62225008534663895     
   4.1821804729785690        7.6672012038851900        2.4376433627144336     
   5.8411181338488287        6.5836581889648764        5.2216078951115836     
   1.4057562766030650E-002  0.90276813305243908        10.088656430331589     
   6.3510422083648876        8.8430479141768892        7.0389454566600040     
   6.4633051190447759        4.7829587726050304        4.9360256045884254     
   5.0310188531743769        7.6045323834976637        1.8079012740249158     
   6.0057712596228612        5.2250768523402495        9.0381704576147754     
   3.3590787931939259        2.8232550148126148        7.2701441441708834     
   3.2663931325158959        7.8309026356314053        9.0625959222764401     
   5.2597685147464412        2.4035181160876236        9.8427971881483352     
   8.2662472711238912        6.3490857353641408        2.2072617635496554     
   3.4451772973841135        10.065205017119734        4.8437606005913416     
   9.3595385176064632        2.6436219926755524        3.2185394165625443     
   7.4055540604681127        3.1555755216894870        10.107854841246008     
   1.6597747526888369       0.92306069623652998        4.6936875960201130     
   5.1563046921342508        7.2840494332352144       0.64904944624779737     
   5.1939645717732086        4.6411911429281290        8.0031669239068677     
   4.6763407721503425       0.40374263433427077        1.2465253458806096     
   4.9998036607112226        1.6293499071282653        1.0050054048432260     
   6.2497179747497293        4.7715979950319172        4.2004783289955254     
   3.0283743306113468E-003   6.1413755440933731        9.1728995418336563     
   2.4777418377802611        6.7498418321521436        3.4643215672582324     
   2.4545988028569270        6.1839648757186039        5.6503391196932595     
   9.0691320837610441        2.1071066535649301        3.5548659861308942     
   1.9507185634011317        6.1991163977876145        7.2976322801847573     
   7.6015821266980481        2.9996603729221301        9.8517691219328523     
   2.7769760635943816        6.7974536255429872        5.9196556632820658E-003
   8.6994621961913357        4.8412769630669255        4.1110235749585033     
   7.4991509580904845        6.6253099257032408        4.0103694585464078     
   7.2118882663854054        8.6706651319166745        5.1728831635393862     
   10.000003312814799        5.6259816474887128        9.3132180261216693     
   3.3266632838391765        4.2701123313078595        6.8178652115028386     
   5.2597807920846646        7.6416674504392121        9.7990998220078982     
   10.044012698776891        9.7434854871292735        8.7914383135664700     
   4.3795129239168533        7.8254075046317908        10.026216778637508     
   7.7756158673439479        3.4818005895716504        7.6478644727756215     
   1.9675093963496231        5.5905607565560480        9.8616845835776452     
   6.6773576975867375        2.4397355989112652        6.5647025175982519     
   4.0565926169469488        6.4075758221277361       0.84731683969376870     
   3.8712543139968307        6.4349591196644162        4.4449165307900813     
   7.4597589295024465        5.2244441605215446        6.9375696922519818     
   2.1201906503180550        7.0032172212456025        4.7673695165890262     
   6.7818802136946701        3.5544584757539552       0.14962983020989162     
   5.4234588019162073       0.44645147274579128        6.9613843109568894     
   9.0964168586032006        1.3798274568855422        4.3877903520092474     
   8.9944736016841258        3.3417448336893831        9.0313963921404561     
   10.055948902395881        1.5056392594697949        1.6535293130464321     
   4.2636894816106841        7.0935725004568155        1.1141056589338345     
   8.7264182399477370        4.0508798898637739        8.6927391511337753     
   2.7382591982568680        5.3285385355207699        3.2647879011453971     
   4.8014349319665062       0.73710852582152708        6.7589796603179062     
   2.5395849104418113        9.2372442587437185        6.4098356820553342     
   3.5836638259268474        6.3554896389700595        7.7066843516509387     
   8.9788618871622070        9.0924260533897314        8.6922654485440027     
  0.58724079566923260        6.0788345880519206        4.8063916426047841     
   9.6427466013971461        9.6645508636938686        9.0141105585805530     
  0.43702156000674813        8.1958220242058317       0.88946053808014480     
   5.6573613512989391        1.1500897202777989        4.0302898667274674     
   1.2811411528299048        4.5437345775268385        9.0815279638141195     
  0.50541280940089295        5.8936293846484427        5.4971170295064526     
  0.89504952554250072        8.1043856756064745        1.8290383115251656     
   2.1242864919538271        9.3677962808793591        4.9482843849247091     
   4.6767632447491483        6.2316078448771988        4.2804859314538213     
   7.9263246961046079        9.8901324749044672        5.4414882557720716     
   1.1175518935442388        4.0502750160836039        4.3133687370105740     
   3.7241467510572446        6.5062610027741403        6.4026661543456038     
   5.2341234594087140        1.5756058774923238        4.2189846994600897     
   1.7834042591822026        6.4548349516133889        3.8753823721522789     
   3.4339134658343280        5.0788165569735888        10.023184760649881     
   4.1115980329222985        9.5943760590584599        9.0707161980530149     
   6.0982737777215004        1.9643588403504071        10.013155836563362     
   3.7544879049700435        5.2984489079048909E-002   6.1382705600980492     
   1.9707110798371674        8.6411797990461015        2.4664117075523277     
   4.5785814414928572        1.4104263546417921        9.2096090824415686     
  0.23712882026589283        5.1176935077648125        2.9164757560471646     
   4.9220885682520352        1.6878374778890324        4.9595436356972507E-002
   4.0002647415843473        7.8111164377743663        3.6360440236236564     
  0.55677518217115318        7.2075945564005561       0.72806014919239170     
   2.0153531135888358        2.8129815566756116        3.4995388276035206     
  0.15202035404781464        3.8470861177948099        6.0511758868976582     
   8.4754123390012861        6.5494665883600351       0.11444544284057744     
   3.0530138845649932        8.0433073965182800        1.5103487692057178     
   9.6383163883940561        7.7549963973283234        8.0932208749076597     
   4.2145013918794136       0.93413941302561077        7.8840230126375106     
  0.81342508914456457        7.5488633003016963        8.7048690145981187     
   7.4799330674958746        8.5670227525032132       0.20346668513468696     
   6.7314718178745512        1.7592601422964786        3.5303612106258946     
  0.42946501554105804        4.3753433434174385        2.1762653798793696     
   1.6027768696894618        1.5440556838728225        6.4140401412668560     
   3.8017743293199970        2.0420288771473851        1.0316135959002091     
  0.29760200048619256       0.46147944681527175        6.7123625735872077     
   7.8422819019086409        6.6766082226134795        1.8050779056340678     
   6.5641016351554713        9.8274084602296838        2.9101936354099842     
   3.3239154022252051        9.6711238996516045        5.3618394618152259     
   2.2005765435297318        7.4366889584122990        8.9177278352594538     
   1.1397889257002696        5.1203351867768525        9.4184068408617954     
  0.54671202834775845        2.8461499734064302        8.8453262639469816     
   8.5600179292217682       0.40452687825952394        8.1579740009925423     
   1.8271432995711965        4.1176881106472170        6.3208873095650882     
   8.6725839008003973        9.0118708330257640        8.7688906509678546     
   7.5429624035262925        6.8449574739239214        6.1901271489733567     
   7.4090213545944632        9.3165100926399358        2.4136081219567029     
   9.4584146762174299        2.8807763191321465        6.6501450520819416     
   3.6235992535354611        1.0453907743059878        1.2534380011978776     
   2.4878371023108699        5.0393688745254108        5.7511115318633745     
   6.5475619292121623       0.55020215380217063        4.7167402227917492     
   3.6423721336519157        2.9716815862241401        9.2930496211904767     
   9.6840183953519379        3.8638909252986746        5.8779849406757201     
  0.15352449368725798        4.0770027404934668        9.8536648231716697     
   4.9117669140835778        7.6650710052274089        9.8293571651099612     
   4.1608432016581141        10.003436081017810        9.1663575062130480     
   9.2555336115747071        6.3526052926439149        6.0825387201575740     
   5.3128343115392367        7.5433267750352462        6.0264840827158350     
   6.6757069515194232        5.1085854143053391        9.1409083075656739     
   7.9455361204504245        2.2985668325779391        2.3069104304044079     
   6.5927878707738481        1.5584146483851937        9.5829912846526248     
   8.4687283196478944        5.0718786955496933        7.3026939309552805     
   4.8012992589919765        3.8115900059965946        4.6458202060775529     
   8.4738194247048373        2.3387607317126160        7.8407823213250261     
   4.4585869072591429        5.1440712947209901        1.2961290508247012     
   9.5649177260540057       0.24127133876373949        8.5529197231953251     
   2.0297205879138711        9.8642596395042865        2.6121399200699811     
   7.4583776932600552        6.9374453807263574        3.2014437803276405     
   9.3333677653420892       0.96092619130149293        1.2192322398424291     
   6.5163145336760637        7.3303063002489033        5.0520765096621796     
   9.9724378419370776        2.6887066812077953        7.2605920097343377     
   6.7767476083511884        5.9363844385376963        6.9369039340720269     
   9.9361004514559017        6.8661895444434808        3.2642423812825814     
   8.3170439740756077        3.8919935971561834       0.12456854735315255     
   1.5706768071139765       0.51133775363426481        6.0138947794530999     
   7.7446136876912632        6.5763800152284615        2.2842997873374067     
   2.8204436680654958        7.5967246949980654        9.6156466160570417     
   7.7005302562928390        6.0272002695483566        6.1708042567509134     
   9.3401043859716335        3.9109954818692154        1.9722290688339623     
   2.0391217901078571        6.0598468204802227        6.5090520069134969     
   8.0108354185584894       0.22508174168089695        3.2017438077897009     
   10.069849952593344        8.0074653551880850        6.6216307018199085     
   6.4230765504514684        8.0865463624266223        4.3928690274266708     
   5.0876593525704896        4.8955709716363405       0.76200041340549429     
  0.31173996361125234        4.8257282503287318       0.64534917072364051     
   7.4601459943430797        2.7969699263387233        8.2179059418700131     
   5.2907808771932912        4.7643570526519419        4.8760603455245111     
  0.16741254480144566        7.4803482328560875       0.72416119708524374     
   8.9860615976059055        7.1572698459798980        4.5810892334541231     
   1.1062257629651391        5.3052572300557443       0.68411820954362879     
   7.6352324127153555        3.5986021462598208        1.5705303575666552     
   5.7650383804355769        7.1138207593375178        8.2868944061655263     
   7.5821874736638426        6.4739420974086883        8.6684651508452149     
   6.3937740671920080        8.5357718961594724       0.84057669868769103     
   1.8095654003060655        9.8051091357205724        7.7958085936614738     
   7.7609136647166412        8.5218165246679565        7.5644812598849747     
   8.8138534104331061        7.0646306778423691       0.47819611852226862     
   1.7356572329037010        5.3939497139811516        7.1357255409588571     
   7.9647747698203375        1.5674008517362266        8.3085696960314248     
   5.0771831276507093        7.9353429352027733        9.1956503486819976     
   4.0977362747526849        1.5036564035893005        6.9879461318457121     
   1.5837573063882873        2.9909543823929701        8.7948233185520834     
   3.2781106468117827        8.1378241089525289       0.47719561042304010     
   5.8941068340431304        5.6341618363576034        3.9586778060913468     
   8.1132800995553787        4.9962598693211762        10.054786735634568     
   9.6444750795981165        6.9168768218013117        5.9014059875586868E-002
   7.3736511964586526        2.1949625428796886        2.8967047160785819     
   2.6010911623660995        4.2139985328270173        8.3253638923349058     
   2.1571573868908978       0.18149701006537675        9.6805998252447303     
   3.4504071565255505        1.2621421722635708        4.1410183399445417     
   1.8828454061033255        7.2445777145668506        3.1251383846344720     
   7.8526225426960830        1.6732983192281305        4.8593114736327587     
   6.7375820426446085       0.34348058067113818        6.9858692863063618     
   3.4746729523266850        3.2845431535892087        8.1049837239644127     
   9.1419234558466318        2.6973527763321599        6.9933722368290816     
   8.1672271073451643        4.4376220038090484        7.3954653450517851     
   5.9876292897960273        7.9861974151791593        1.4783318107794554     
   5.8034886899710196        5.7109792499429961        6.3208833799062649     
   3.8844145961517809        7.5602118772761138        4.4881763002428370     
   6.1600223951890563        6.4315357494366507        5.1428081349249126     
   4.9326250307462294        9.0959372341014664        7.8292633299338075     
   5.3109948638100919        2.2676334424879876        2.5436780689253689     
   9.8204623867553220        2.2596023972447128        9.9054374492755315     
   8.7780803183302982        1.9539082689850766        3.9557263455062537     
  0.40925526982559451        5.0636553555327843        4.9672824532895197     
   7.6104628796746043        3.8980348981669408        3.8063227361196157     
   8.8942483533501768        6.4856125703630072        6.7665700852676425     
   4.5211896696422889        1.2439990396181455       0.16072759399926892     
  0.23057969067511019        9.4539369925027827        2.1864502594446815     
   6.1279642561050256        9.8632249717639180        2.2319724019611016     
   5.1586166186113562        5.4275595911426775        5.2402108580699984     
   2.9268819492161526        6.1116529486401907        3.4590481931646768     
   8.6763818061411140       0.10487052066398295        9.3264751842461013     
   9.7193163579357762        5.4148402712809505        3.6100819103352992     
   2.0427203870040387        5.1208597121234236        10.099882320790163     
   3.7888626139260428       0.69682402776113339        4.7795339049827463     
   2.0244452748908488        3.1496671802560567        1.9469798350580436     
   3.7240699952352552        7.4199337161365886        3.4620191955441748     
   5.2516361716819562        3.9213401232962299       0.16591088962024261     
  0.16452357055274441        9.4690537217691055        4.9462673720769006     
   9.5308875994790174        8.2116570891132756        8.0755652922179468     
   5.0315554543179353        3.6517943384639087        1.2666423299199228     
   2.4880946573786950E-002   10.033224738971690        4.7103964819474244     
   3.4549932363044231        5.2553166311446669        1.0674817983304257     
   6.1528452186324909        9.2407276866310450        8.3569885503461041     
   6.0271472898318041        9.9421017173849489        6.6096649724650440     
   8.5920181314536688        2.2637328976882425        4.1461046128130405     
   1.5264144306806675       0.30950131205052023        7.6793539204702554     
   9.7109139449896471       0.41498679144485973       0.67353922656602672     
